# .PCD v0.7 - Point Cloud Data file format
VERSION 0.7
FIELDS x y z
SIZE 4 4 4
TYPE F F F
COUNT 1 1 1
WIDTH 254
HEIGHT 1
VIEWPOINT 0 0 0 1 0 0 0
POINTS 254
DATA ascii
-62.6446 79.848396 140.621
-58.887402 79.968102 141.226
-61.9762 80.669899 140.381
-57.734402 80.557701 141.36099
-53.085701 80.813499 142.02699
-47.048698 81.1763 140.17999
-42.025299 81.234802 140.76601
-37.183498 81.393501 140.517
-32.519699 81.408798 140.74001
-27.444901 81.550598 141.088
-22.624901 81.575302 141.25301
-18.2029 81.810501 142.35201
-10.1097 80.9048 138.408
-7.8494201 81.133698 141.17799
-2.80599 80.802902 141.405
3.25194 81.251999 141.11301
7.5195699 81.468903 141.388
12.3429 81.4235 141.36301
16.019699 81.276703 141.48199
23.453699 81.407997 141.155
27.4114 81.476997 140.99899
32.4832 81.957802 141.88901
37.432499 82.380203 142.345
41.534801 82.375801 142.444
47.999802 81.539398 140.592
52.7346 81.396202 141.439
57.675098 81.229797 141.526
62.702301 81.340202 141.45799
67.473801 81.4776 141.41499
71.8433 81.537903 141.39999
76.601898 81.704399 141.97501
-80.954697 80.739197 147.002
-77.771698 80.988602 147.23801
-74.736504 81.958099 148.005
77.530296 81.537399 143.877
82.109802 81.388199 143.95799
-96.730003 83.839104 152.53
-93.922699 84.057503 152.84399
-86.752899 83.539803 152.33501
-81.827301 82.177002 152.026
81.819801 82.048401 152.82201
-100.949 79.757401 156.39799
-98.6866 79.862099 155.892
-101.376 81.5532 155.96001
-97.403702 81.527802 155.004
82.291 82.043404 156.069
86.954697 81.943901 157.034
-93.239998 85.738503 155.23801
-105.442 80.753098 162.19901
-102.421 80.567596 160.737
94.650597 83.649803 161.739
100.241 85.0896 163.061
114.284 84.650002 162.41
-106.737 80.752296 165.998
105.385 82.212196 166.882
120.579 82.767899 167.47701
102.689 84.3871 165.248
108.031 84.613503 166.384
117.337 84.205704 164.798
120.58 83.354897 166.66499
-115.47 80.733597 171.11
-112.654 80.820602 170.25101
-107.601 80.713203 169.87601
121.903 82.039803 170.313
121.055 83.2771 171.36099
-117.231 81.930298 177.47701
122.099 82.173203 175.897
128.37 82.0336 177.851
125.526 83.288597 178.024
-122.213 81.052696 182.12801
-117.331 81.136597 180.35899
127.706 81.459801 180.444
130.821 80.536003 181.237
-126.105 81.389099 185.604
130.743 82.676399 187.758
-132.588 82.192497 192.03101
-127.636 81.364098 190.41299
132.67999 82.694397 189.806
137.58501 83.055 191.507
-137.577 81.0224 197.93201
-132.32001 81.2379 195.211
141.183 83.947304 196.72301
-136.233 80.825401 199.54401
142.283 83.096199 200.114
146.287 83.086601 201.58299
-141.968 81.722298 207.093
-137.054 81.218498 205.89799
147.82899 83.1698 206.43201
150.42101 82.8237 207.323
-147.343 82.324203 211.755
-142.698 81.733398 210.509
-147.213 83.514503 210.935
151.257 82.680099 209.513
-150.937 82.139999 216.142
-147.64101 82.091202 216.08299
152.733 83.661102 215.963
156.577 83.435799 216.80099
-155.95599 82.903702 221.701
-155.95599 83.454102 221.72099
-154.688 83.594597 219.94901
157.793 83.474602 221.089
160.79201 83.239899 221.235
-157.11099 81.879303 226.017
-157.245 83.033897 223.51199
162.526 82.762802 225.817
165.431 81.757599 226.89799
-161.701 81.961403 229.718
-165.44099 83.426697 231.388
-163.52901 83.281197 230.81799
166.821 82.565002 232.25
-167.28799 81.561996 236.246
-166.289 82.874901 235.056
167.586 82.578796 236.44701
171.70599 82.648003 237.42101
-170.388 81.254204 241.87
-166.784 81.344101 240.345
172.19501 81.014099 240.56
176.241 81.237198 241.914
-172.36 81.544403 246.36099
-180.711 81.743202 251.53
-177.02 81.388298 252.293
-173.295 81.417198 250.67999
-180.711 82.368896 251.554
-178.317 82.402603 251.71001
171.22701 82.694397 250.02
-182.246 81.491699 253.634
178.452 83.412804 255.84599
182.93201 83.8517 257.448
184.17599 84.451599 258.01001
-181.228 81.382896 259.16699
-186.85201 82.398499 260.44901
-181.228 82.027802 259.19
-191.761 82.626503 266.87601
-187.439 82.300499 266.58899
192.869 83.102798 266.035
195.509 81.971001 267.608
183.842 84.746597 266.12399
187.578 85.325798 266.42801
190.992 84.302696 266.06699
-196.114 81.842697 271.32199
-193.25101 82.148499 269.392
196.149 81.043198 268.892
-196.243 80.7537 273.32001
-196.243 81.434303 273.34601
195.634 82.621597 275.75201
195.10899 83.9916 275.181
-201.345 81.805603 280.38699
-197.013 81.576897 279.694
196.491 81.864899 280.60599
-202.235 82.451797 287.561
197.35899 81.287003 284.98001
200.78999 81.834396 285.332
203.897 84.369499 286.49799
207.479 84.3367 287.28101
210.09399 83.792099 287.41199
-207.08701 82.398399 290.439
-202.54201 81.741898 290.40799
212.34 81.761803 291.526
210.832 83.191101 290.845
-220.19501 82.222198 296.686
-217.606 82.204102 296.685
-212.511 81.832001 296.03799
-207.61099 81.377602 295.392
215.976 82.068199 297.81799
212.92101 82.950104 295.70401
215.976 82.810204 297.84601
-221.04201 81.187897 298.27301
216.47099 80.496101 300.13501
218.797 82.388298 301.67999
219.64999 80.964699 303.30801
221.16299 80.954201 303.30701
-220.813 81.920197 312.578
222.724 81.467903 312.32101
226.39999 81.362 312.01801
226.39999 82.139801 312.047
-231.07401 83.415901 318.117
-226.12199 82.321701 313.996
-222.95399 82.286499 313.94501
231.532 83.022202 316.927
-231.76401 83.052803 322.88901
230.11501 81.098701 323.13199
230.11501 81.904503 323.16199
-237 82.845398 326.73199
-232.948 82.455597 325.814
-240.149 84.742302 327.75101
-239.332 84.736504 327.75101
236.97 83.384903 325.966
-245.77299 82.4133 333.01801
-242.68401 83.1222 331.18799
241.311 80.3526 330.08301
-242.35899 85.0961 329.086
241.287 82.220802 332.233
-251.507 82.452499 335.767
-247.98199 81.944 335.595
244.564 79.488701 335.02701
245.401 79.482803 335.02701
245.254 81.674797 337.18799
-247.451 80.697899 339.76099
244.259 82.207298 339.31299
246.634 81.464203 341.854
248.202 80.0896 346.45001
247.77699 82.5411 345.953
255.50101 79.5308 351.668
252.72099 81.059898 349.96399
255.48599 80.706398 350.20599
-252.567 83.003799 357.13101
-247.35699 82.431702 354.776
257.271 78.748001 354.51401
260.66501 79.237602 356.276
258.95099 80.925301 354.01401
-255.033 82.934402 358.702
262.651 77.608002 360.38901
265.20901 76.864502 361.733
-266.81299 84.196198 361.93701
-261.88699 84.060402 359.535
-257.70401 83.985497 359.33499
-255.033 83.829697 358.73499
-270.29501 82.869904 365.95599
-270.29501 83.783501 365.98999
-275.289 82.539902 372.64801
-275.289 83.470497 372.68201
-272.185 83.448799 372.68201
-277.41501 82.178299 377.39001
266.487 81.464798 374.39301
-285.85199 81.842003 386.802
-285.91501 83.653999 385.40399
-291.54901 83.142899 390.56699
-289.59601 83.129303 390.56699
257.711 82.896103 398.284
-298 83.809303 403.185
-292.95999 83.774101 403.18399
262.27499 82.714798 399.91101
-297.08701 82.6343 407.38699
266.29501 82.301102 405.21301
268.14401 81.308403 410.29199
272.77399 82.001404 411.35999
275.703 81.681099 412.39001
-297.871 82.872101 415.53
-294.26901 83.812599 413.44501
279.39401 81.782501 415.55899
283.15399 81.295403 417.67899
286.79501 80.912102 417.66501
-297.95599 82.912102 419.28101
288.98199 81.3778 421.66901
292.53601 81.061699 420.19501
298.63699 80.895203 423.10699
299.60001 77.042297 424.069
296.80099 79.915199 426.85699
286.32901 79.6259 446.32999
293.18201 80.1586 452.577
-299.98499 85.002701 456.50101
292.13501 78.237503 456.33099
294.487 77.302803 458.875
297.84799 78.714897 460.56201
